293.919 190.031 -400.562 0.604969 -0.279734 0.745494 1.70153
349.811 11.4854 30.1654 -0.497797 0.859004 0.11963 4.35551e-08
295.615 -187.382 277.952 -0.747409 0.663227 0.0388515 0.000897068
-214.238 -276.771 -527.306 -0.697112 0.344406 0.628823 0.000923945
-270.819 221.713 -693.753 0.602149 0.415554 0.681712 0.000397599
-322.942 -134.94 -45.1301 0.559786 0.722434 0.405868 7.05141e-05
-305.192 -108.453 1010 -0.467592 0.0897207 -0.879379 0.000541237
312.946 -156.733 96.0943 -0.52084 0.72702 -0.447401 4.60697e-09
-349.998 1.30503 322.224 0.55674 0.0870716 -0.826111 3.19486e-08
134.197 323.251 -81.1604 0.357412 -0.649097 -0.671513 1.5155e-08
263.118 230.8 -581.411 -0.619786 0.46911 0.629127 0.000772041
265.689 -227.837 -532.993 -0.853183 -0.370528 0.367135 1.81678e-05
336.788 -95.2585 385.907 -0.710278 0.6653 0.229959 2.23667
-240.915 253.889 265.662 -0.137532 0.245183 -0.959672 0.00046424
147.395 -317.45 -373.506 0.193815 0.178951 0.964579 0.00045046
29.9618 348.715 48.3526 0.154025 -0.775173 -0.612686 0.000322126
-349.649 -15.6671 102.526 0.630135 0.765601 0.129559 1.18535
199.074 -178.779 1010 -0.0495635 0.998693 -0.0124759 0.000631479
-56.5462 -345.402 820.462 -0.908548 -0.152388 -0.388997 0.000167177
-257.808 -236.717 -267.174 0.838146 -0.100671 -0.536076 1.72001
36.7649 -348.064 -52.7773 -0.186496 0.627657 0.755822 0.000183818
337.807 91.5791 -789.118 -0.0973623 -0.677233 0.729298 0.000116971
-326.723 -125.507 684.708 0.723436 0.638531 0.262522 0.000360529
-315.393 -151.747 -679.029 0.220441 -0.939766 0.261237 0.000892087
-324.381 -131.443 227.312 0.880657 0.121251 0.457976 0.109657
-298.735 182.366 -855.278 -0.767083 0.329462 0.550489 3.02654e-08
238.289 -256.356 -817.855 -0.794933 0.606225 -0.023944 2.72178e-08
63.2046 344.246 354.64 0.252585 -0.565334 -0.785238 2.23568e-08
-143.168 -319.379 -371.236 -0.788023 0.615267 0.0215878 2.34878
-271.076 221.4 -458.371 0.527771 0.600583 0.600631 3.92996e-08
-334.343 -103.513 219.948 0.68149 -0.691032 -0.240927 0.92199
8.12943 349.906 -678.126 0.257526 -0.936547 0.237822 4.89442e-08
-215.78 274.967 1010 0.149522 -0.391177 -0.908088 1.54245e-08
333.386 -106.553 636.533 -0.544433 0.61648 -0.56881 0.00060825
-44.3762 347.175 714.149 0.50377 0.377343 -0.777064 0.000307871
-335.629 -99.2648 559.03 0.0284801 -0.641005 -0.767008 5.03503e-05
-278.608 211.844 -924.139 -0.333584 0.819934 0.46522 8.253e-05
-337.739 91.8265 399.718 0.48825 -0.570392 -0.660504 2.35437
315.222 152.103 -138.673 -0.501506 -0.838218 0.214199 1.99191
169.252 306.356 346.519 0.1905 -0.981194 -0.0310998 0.000623591
221.052 -271.359 248.826 -0.0801784 0.0550879 -0.995257 2.48163e-08
-329.845 -117.057 715.371 0.860155 0.33307 0.386261 0.000648205
190.558 293.577 -68.3136 0.537862 -0.788128 0.299262 0.000578414
135.161 -322.849 289.006 -0.274723 0.307967 -0.910869 0.000645349
110.315 332.161 -380.432 0.0376115 0.312264 0.949251 0.524058
-340.82 -79.6344 153.921 0.59397 0.7356 -0.325719 6.38867e-09
-300.069 180.163 -991.414 0.385743 -0.403168 0.829854 0.000555085
-67.6876 -225.334 -1010 -0.44861 -0.855026 0.260151 0.000996657
-8.30637 349.901 904.86 -0.211735 -0.797603 -0.564799 0.000661549
-322.035 -137.089 184.886 0.765967 -0.386175 0.513968 2.2121e-08
340.629 80.4495 563.86 0.769177 0.120745 -0.627524 3.0669e-08
279.874 62.3567 1010 -0.441902 0.889832 -0.113673 1.94481e-09
192.892 292.049 -692.504 -0.747466 -0.662524 -0.0485423 0.000512275
-168.506 -306.766 407.835 -0.414907 0.894911 0.164274 0.000735798
233.807 -260.45 -764.008 0.12655 0.261864 0.956772 4.19813e-08
305.7 -170.433 400.124 -0.870867 0.489643 0.042896 0.000245961
50.5061 -346.337 -72.9579 -0.610528 0.542821 -0.576715 2.03118e-08
345.188 57.8386 126.539 -0.330358 0.403147 -0.853426 0.000337608
347.034 -45.4713 178.275 -0.961349 0.187272 0.201837 1.74433
331.591 112.014 855.456 -0.880512 -0.318971 0.35065 0.000106928
-30.1807 -348.696 -892.485 0.10052 -0.177493 0.978975 2.45787e-08
-346.108 52.0535 802.812 -0.682805 -0.669008 -0.293608 1.89467e-08
-6.79395 -349.934 574.978 -0.270363 0.553491 -0.787751 0.000433323
57.7369 -345.205 434.858 0.904057 0.151308 -0.399733 1.56201e-08
279.087 -211.212 -703.268 -0.894993 0.0617481 0.441786 0.000707998
-304.252 -173.005 -981.953 0.360786 0.91417 0.184731 0.000157449
329.516 117.979 867.304 0.698556 0.0404991 -0.714409 3.52582e-08
-314.028 154.552 -400.652 0.832642 -0.336861 -0.439581 1.29251e-08
317.223 -147.883 363.219 0.318145 0.331573 -0.888168 4.67701e-08
129.789 -15.9494 1010 0.29105 -0.522381 -0.801504 3.65054e-08
-0.357809 350 674.966 0.311538 0.0110954 -0.950169 2.62948e-08
-349.969 -4.65923 430.517 -0.668852 -0.323922 -0.669112 2.18068e-06
-332.873 108.146 563.845 -0.809226 -0.408939 -0.421809 0.000180072
-122.875 -327.722 578.686 0.884623 0.437295 -0.161909 6.78214e-05
-126.618 -54.5324 1010 -0.66164 0.240311 -0.710269 0.000494023
-194.22 291.168 557.874 -0.078103 0.0280402 -0.996551 0.0292479
236.238 258.247 -436.403 -0.243735 -0.239733 0.939745 0.000709072
-16.0456 278.553 -1010 -0.209739 -0.892119 0.400166 4.06272e-09
68.6485 343.202 -866.376 0.388918 0.585877 0.710979 0.000943455
347.952 -37.8064 9.50908 -0.824093 -0.54403 0.157803 2.43892
-252.398 242.478 -799.407 -0.37854 -0.502576 0.777255 0.000863145
300.978 -178.641 167.646 -0.727303 -0.675243 0.12279 2.35917
343.158 -68.8675 691.71 -0.49268 0.599371 -0.630889 6.72386e-09
-348.428 -33.1367 403.944 0.675264 0.727068 -0.124058 0.665952
347.056 -45.3014 150.721 -0.566281 -0.350803 0.745831 0.000839168
121.712 -328.156 -337.187 0.765852 0.144914 0.626475 0.000702737
-128.974 -297.416 -1010 0.111554 0.96124 -0.252137 1.38283
-90.5257 -338.09 353.737 0.748802 0.648249 -0.138093 0.000233545
-234.799 40.2538 -1010 0.447024 -0.426043 0.786548 0.000557752
10.4656 -126.632 1010 -0.965585 -0.121913 -0.229744 5.35421e-05
-333.444 -106.371 912.333 -0.218601 0.815542 -0.535822 1.82917
105.074 -333.856 519.221 -0.809976 0.586349 0.0115437 2.3892
-304.323 -6.23157 1010 0.943587 0.190648 -0.270734 0.000219796
298.341 -183.01 -600.382 -0.729312 0.0995931 0.676894 2.48685
-301.174 178.309 -3.59492 -0.0887414 -0.973034 -0.212907 0.667163
345.867 53.6257 -207.54 -0.148872 0.68448 0.71367 3.89253e-05
250.237 -244.707 -460.903 -0.915582 -0.219662 0.336836 8.38826e-09
275.216 216.232 -302.002 0.0188986 0.370606 0.928598 0.000101085
206.185 275.343 1010 -0.303914 0.749904 -0.587606 1.27668
-301.255 -178.173 -253.941 0.914529 0.172089 0.366089 0.000604227
300.105 180.102 342.303 0.582915 -0.0956219 -0.806887 7.52482e-05
63.3879 344.212 944.833 0.0271499 0.615431 -0.787723 3.34414e-08
243.721 18.6891 -1010 -0.789343 0.613701 0.0175897 0.000164915
-243.776 -251.143 10.7523 0.0428025 0.881123 0.470946 0.0782693
-317.842 146.547 137.155 0.0612286 -0.674196 -0.73601 0.000331964
-70.7374 264.709 1010 0.162047 0.90363 -0.396477 0.000240597
-297.526 -184.332 639.554 -0.372282 -0.429698 -0.822658 4.1428e-08
-325.46 128.747 -342.787 -0.53621 -0.815219 0.218852 0.000860293
-21.6569 -349.329 -174.613 0.693255 0.62123 0.365337 0.000517635
-236.64 -257.879 102.14 0.272916 0.92312 0.270862 0.000954211
45.0377 326.896 1010 -0.277231 0.284879 -0.917599 0.000891166
-344.891 -59.5815 395.063 0.907295 0.323384 0.268772 0.00086977
173.15 -205.749 1010 0.56682 0.814828 -0.121534 0.000492247
319.09 -143.812 -1.7385 0.16507 0.98033 0.108187 7.75696e-09
349.999 0.838458 -776.378 -0.355033 -0.934833 0.00619175 9.05478e-09
-183.078 -298.299 217.545 0.192283 0.981339 -0.00120584 2.76225e-08
-163.584 309.419 401.364 0.954044 -0.244566 -0.173171 2.96206e-08
96.6225 336.399 413.076 0.622938 -0.746116 -0.235072 0.000136749
-248.448 246.523 -526.306 -0.0820918 -0.92435 -0.372609 0.000962001
-345.765 54.2809 847.107 0.00910629 0.0840323 -0.996421 4.73313e-08
260.104 234.192 -188.691 -0.765218 0.642424 -0.0416368 1.8238
242.254 -252.612 590.073 -0.215001 -0.195292 -0.956888 0.00041898
257.246 237.328 -187.151 -0.855441 -0.405313 -0.322399 4.4924e-08
113.577 -331.059 -1005.93 -0.141779 0.256991 0.955957 0.000556092
-51.9304 -346.126 816.972 0.844245 -0.412417 -0.342291 0.000187121
339.84 83.7169 -418.078 -0.724357 -0.51396 0.459513 0.00011336
100.378 335.297 118.325 -0.594523 -0.498047 -0.631262 0.000153913
-247.428 -247.546 719.097 -0.0725483 -0.0354604 -0.996734 2.15671e-08
-189.689 294.14 314.369 -0.00898504 -0.999919 -0.00903554 1.44363
-173.597 303.915 211.197 0.172317 -0.984807 -0.0215146 0.00080874
76.1926 341.606 -219.693 -0.00365791 -0.546396 0.837519 0.000309089
-224.357 268.633 -960.642 0.810721 0.266063 0.52148 1.97251e-08
-270.935 221.573 -152.906 0.94512 -0.293888 -0.142751 2.30015e-05
311.371 4.88621 -1010 -0.766587 -0.640294 -0.0486595 0.000280824
-237.121 -257.437 -3.70265 0.558828 -0.46665 0.685528 3.99372e-08
-346.518 -49.2493 -239.213 -0.131518 0.418067 0.898845 0.000987943
-206.362 282.692 325.284 -0.0875672 -0.543936 -0.834545 0.113624
-99.4525 181.951 1010 0.010867 0.963176 -0.268654 0.000627772
-251.005 -243.919 416.213 0.494937 -0.809717 -0.315272 0.000786996
340.636 -80.4171 -544.973 0.848364 0.0409147 0.527829 0.000216982
-339.474 85.1923 -796.579 -0.674705 -0.499296 0.543578 3.33404e-08
-277.186 213.701 -815.551 -0.54385 -0.838262 0.0392929 4.09146e-08
-314.967 152.629 229.302 0.944144 -0.224554 0.241178 1.39286e-08
264.412 -168.915 -1010 -0.937301 -0.0627286 0.34283 2.37773
-78.5026 341.083 -230.773 0.68749 -0.686995 0.235363 0.000945415
229.313 264.415 -998.489 -0.919622 -0.372125 0.125771 3.86348e-08
127.163 326.082 -406.987 0.509117 -0.159591 0.845772 4.30943e-08
-137.302 -321.944 281.321 0.0266746 0.582797 -0.81218 3.63819e-08
3.40562 -349.983 890.047 -0.213723 -0.862583 -0.458556 1.07679e-08
-340.964 79.0176 -518.34 0.128167 0.96973 0.207837 0.000593409
349.984 3.34246 978.548 -0.673473 0.568938 -0.471956 0.000687693
-65.1949 87.105 1010 -0.923611 -0.367259 -0.10983 0.000746883
-90.1899 338.18 -995.581 0.434968 -0.8994 0.0433886 0.00030604
328.28 -121.377 237.93 -0.803127 0.594485 -0.0396854 2.93353e-08
-349.43 -19.9624 403.537 0.587218 0.69506 -0.414809 0.000123494
-188.448 -294.936 -294.029 -0.765775 0.623406 0.15797 2.2281
281.566 207.896 -578.539 -0.750526 0.255441 0.609475 2.22126
297.108 52.4107 -1010 0.519205 -0.686419 0.509172 1.91843e-08
175.594 -302.765 912.191 -0.489859 0.404279 -0.772396 4.76068e-08
-226.162 267.115 -883.207 -0.720844 -0.36078 0.591795 0.000618114
-120.073 25.1255 -1010 0.69835 0.623501 0.351502 0.000469031
-104.382 -111.121 -1010 0.575221 -0.816926 0.041858 0.000351263
320.408 -72.0333 1010 0.362804 -0.319785 -0.875278 0.000811339
-273.063 -218.944 -451.641 0.628983 0.220162 0.745593 2.98514e-08
219.095 -272.942 -910.381 0.869907 0.466448 0.160276 0.000189624
-132.497 -323.952 -307.524 -0.447706 0.846124 0.289194 1.47412e-09
-344.249 63.1866 245.195 -0.379387 0.104152 -0.919357 0.000448171
346.301 -50.7498 -229.792 0.133353 -0.49292 0.859794 4.96561e-08
-335.564 99.4819 -884.403 0.649018 0.759684 -0.0406923 7.06797e-09
-204.28 -284.2 6.83252 0.647799 -0.0354882 0.760984 1.62164e-08
-348.632 30.9157 817.882 0.879888 0.395256 0.263759 0.000673658
-256.129 238.533 450.291 0.0974791 -0.615819 -0.781834 0.000239219
339.044 -86.887 -258.505 0.0834875 0.538037 0.838776 1.58971
65.2118 -343.871 -833.53 0.595562 -0.122019 0.793988 0.000682067
43.3196 -347.309 -161.069 0.800087 0.599421 -0.0235363 2.06546e-08
-14.7487 -349.689 -749.683 0.705781 -0.126965 0.69696 0.000454435
165.966 308.148 -963.26 0.176201 -0.44349 0.878789 3.20045e-08
-299.165 -181.661 587.472 0.566529 -0.486439 -0.665148 2.80747e-08
-62.3273 -344.406 -116.589 -0.648233 0.214044 0.730738 0.000418577
349.64 -15.8619 -509.038 -0.32349 0.841829 0.432062 1.9531e-08
4.51994 349.971 -801.075 0.226144 -0.93731 -0.265159 0.000194154
158.264 -312.174 -61.1536 -0.683713 -0.309363 0.660932 2.20451
267.185 226.08 -316.612 0.150105 -0.11797 0.981607 0.000981118
-211.624 278.775 -836.301 -0.828749 -0.331462 0.450896 4.19041e-08
-329.183 -118.906 -523.613 0.597468 -0.794104 -0.111492 0.00051413
-18.5923 -349.506 723.103 0.954724 0.295722 0.0324094 8.18157e-05
-266.396 -227.009 155.541 0.579639 -0.399806 -0.710051 0.000796442
234.809 -78.9976 1010 0.268269 -0.558132 -0.785188 0.000659615
307.16 167.788 -609.173 -0.808418 0.476168 0.346012 1.43795e-08
-298.909 182.081 470.068 0.250217 -0.739527 -0.624893 0.626772
-37.9353 -347.938 333.102 -0.696964 0.705708 0.127347 3.37899e-09
148.604 316.886 -636.76 0.385859 -0.879004 -0.280117 0.000513126
-239.673 255.063 -285.726 0.0366767 -0.834112 0.550374 0.000813578
244.493 250.446 368.868 -0.738327 0.502479 -0.449876 3.56002e-08
-126.927 326.174 -527.752 0.950287 -0.129679 0.283088 1.93479e-08
110.126 144.648 1010 -0.853349 -0.383859 -0.35277 0.000986712
-38.9471 -347.826 -734.498 -0.883684 -0.401379 0.240827 0.000392978
23.2187 213.845 -1010 0.0110093 -0.815289 0.57895 0.000732703
347.154 44.5408 -658.807 -0.0679099 -0.803626 0.591247 3.10339e-08
-99.7835 335.475 -731.101 -0.583277 -0.762161 0.280889 2.48564e-08
-276.916 214.051 166.046 0.638163 -0.477493 -0.603945 0.00071596
82.2708 340.193 248.499 -0.342566 -0.938895 -0.0335441 0.00063556
-196.008 234.384 1010 -0.409527 -0.0351523 -0.91162 0.000835104
30.0578 -348.707 204.029 -0.169774 0.922057 -0.347834 0.000644734
-345.349 -56.8716 -893.003 0.217091 0.83798 0.50066 2.19557e-08
-309.351 -163.713 781.319 0.610612 -0.24002 -0.754681 0.000965142
305.9 170.074 -427.407 -0.645841 0.699318 0.306339 3.83335e-08
278.55 -211.92 284.587 0.402154 0.914565 0.0429325 8.19597e-10
-138.727 33.9362 1010 0.727046 0.610354 -0.314438 0.00065848
5.59814 -349.955 695.527 0.961302 -0.0809765 -0.263327 0.000249486
157.346 312.638 637.013 -0.254654 0.042484 -0.966099 9.26701e-09
-332.262 110.01 -181.46 0.65722 0.373371 -0.654718 4.05247e-08
-309.702 -163.047 206.613 0.612038 0.790792 0.00758517 4.44598e-05
-344.182 63.5488 -229.849 0.0925497 0.981596 0.167042 0.21205
289.443 196.781 -209.511 -0.690702 0.222529 0.688049 4.68857e-08
172.384 304.604 871.1 0.419528 -0.900906 -0.111194 1.02766
134.718 -323.034 -498.999 -0.251831 0.563622 0.786709 0.000724833
-59.9349 202.467 -1010 0.101567 0.0892017 0.990821 7.97815e-09
311.625 159.342 690.236 0.043553 -0.993502 0.10515 0.000888553
163.63 309.395 -59.3358 -0.354605 -0.102029 -0.929433 0.000814161
238.199 -256.44 882.01 -0.576656 0.802881 -0.151166 2.98177e-08
-340.841 79.5467 -862.388 -0.13041 0.871944 0.471918 0.00025107
-261.063 125.774 1010 0.865192 0.455318 -0.210069 1.03763
120.224 328.704 -740.465 0.0442164 -0.896668 0.440491 0.000595368
-44.1752 -347.201 -670.385 -0.304521 0.592158 0.746067 0.000659378
203.902 284.472 159.585 -0.967318 0.0585777 -0.246707 0.000788975
282.68 206.379 573.4 -0.118965 0.102856 -0.987557 0.000355928
41.1349 -347.574 869.077 -0.810714 -0.267393 -0.520811 6.66781e-10
127.028 326.135 -749.638 -0.611331 -0.784816 0.10168 0.000803368
-287.736 199.269 -467.456 -0.364327 -0.321226 0.874116 2.43526e-09
-340.456 81.1778 -656.895 0.840129 -0.408105 0.357258 0.000609212
348.462 32.7727 -556.654 -0.953186 -0.165962 -0.252771 3.55993e-08
327.532 123.381 -983.966 0.296417 0.799269 0.522786 4.65618e-08
-261.536 -232.592 255.765 0.862339 0.040153 -0.504737 0.000268626
-293.844 -190.146 -564.384 0.0369987 -0.878971 0.475437 0.000402185
-349.998 -1.22636 -750.958 -0.734742 -0.0836179 0.673173 1.92404e-09
-340.521 -80.9027 -303.908 -0.400661 0.838135 0.370137 0.000833135
-20.9782 349.371 -357.633 0.381085 -0.68626 -0.619534 0.000769256
89.7165 -276.218 1010 -0.0605654 0.238803 -0.969178 2.42976e-08
-188.461 -46.4075 -1010 -0.0576599 0.930757 0.361062 0.000859739
-332.641 -108.859 -422.026 0.761875 0.456589 -0.459427 0.679793
178.204 301.236 -609.692 -0.988902 0.000371287 -0.148572 4.15724e-08
-19.497 -349.457 440.255 0.0571786 0.109929 -0.992293 0.000300888
-334.72 102.286 -938.227 -0.681432 -0.0748283 0.728046 0.000389951
349.502 -18.6697 774.389 0.20771 0.973822 -0.0923411 0.000461542
157.384 -312.618 -21.9406 -0.882302 -0.190316 0.430491 0.000399427
71.282 -342.664 446.317 -0.361932 -0.73306 -0.575872 2.10583
349.911 7.88424 -228.89 -0.79114 0.317733 -0.522631 0.000659261
170.827 37.1778 -1010 0.66567 0.323338 0.672559 0.000614798
304.64 -172.321 -237.636 -0.200715 -0.277006 0.939671 8.19669e-09
53.0014 345.964 870.451 -0.15952 0.809283 -0.565345 0.000877666
-157.471 -312.575 844.462 -0.958672 -0.0138299 -0.284176 1.56963e-09
-278.025 212.608 696.55 0.366034 -0.829156 -0.422516 0.000369895
207.324 281.987 983.924 -0.452115 -0.877806 0.158266 0.000630532
-15.4346 349.66 -909.521 0.867461 -0.46767 0.169696 0.000452717
345.593 55.3694 185.571 -0.830007 0.493311 -0.260253 3.67951e-08
117.129 179.523 1010 0.982445 -0.0827668 -0.167185 2.38721
304.354 172.826 782.157 0.763978 -0.168623 -0.622819 0.000821234
-29.3637 -123.319 1010 0.847312 0.253303 -0.466798 2.38992e-08
-108.858 -47.9494 1010 -0.899697 -0.0545874 -0.433087 6.7084e-09
54.1257 345.79 -986.09 -0.76541 -0.641003 0.0571301 1.75365e-08
-32.4873 -348.489 887.727 -0.329211 -0.739366 -0.587332 2.44362
196.827 -289.412 -463.057 0.385821 -0.493061 0.779765 0.000378992
-325.303 -129.143 600.619 0.225458 0.19635 -0.954262 0.000713312
-26.1138 349.024 254.786 0.880864 -0.289148 -0.374796 0.000248753
-65.732 343.772 -533.638 -0.153495 -0.300019 0.941503 1.71325
228.779 264.878 -526.153 -0.752041 -0.641534 0.151222 1.36038e-08
-321.362 8.25883 1010 -0.133663 0.0512594 -0.9897 0.00036126
-322.878 135.093 180.272 0.700372 -0.305793 0.644957 4.76519e-08
215.597 275.714 629.783 0.639063 -0.0469975 -0.767717 0.896072
-260.306 -233.967 -788.427 -0.801538 -0.291759 0.521933 0.174531
-96.4117 336.459 -822.062 0.919411 -0.36682 -0.141866 0.000115777
40.6891 5.43117 1010 0.760878 0.0589678 -0.64621 3.74229e-08
-48.7919 29.3041 1010 0.94665 -0.154951 -0.282568 0.976828
-314.648 153.286 -295.926 0.343619 -0.885219 0.313551 0.000760414
-347.157 -44.5185 -36.1066 0.963882 -0.2538 -0.080729 9.69543e-05
298.5 182.751 -690.786 0.0673287 -0.982409 -0.174179 0.000881904
343.657 -66.331 138.976 -0.547938 -0.531103 -0.646293 0.208191
-26.1549 349.021 -416.577 -0.0946 -0.845799 -0.525048 3.84502e-09
75.1451 55.1512 -1010 0.654952 -0.655908 0.375264 0.363403
-222.519 270.158 -435.029 -0.18622 -0.759453 0.62334 3.10974e-09
339.086 -86.721 -640.802 -0.885496 0.262102 -0.383665 0.000806489
-243.077 -231.055 -1010 -0.207103 0.0778432 0.975217 1.69963e-08
-297.465 184.43 -877.742 -0.481915 -0.664526 0.571108 0.000181741
235.586 -253.783 -1010 -0.997799 -0.0321423 -0.0579999 1.28634e-05
-202.87 285.208 802.486 -0.699041 -0.579223 -0.419337 2.29929
127.273 326.039 435.252 -0.249577 -0.114654 -0.961543 0.000930998
344.361 62.5745 1004.79 0.836727 -0.337945 -0.430907 0.000314842
180.856 299.652 -315.461 -0.41837 0.518692 0.745604 1.3987
266.101 -227.355 304.477 0.693914 0.503079 -0.515165 3.43667e-08
232.491 261.625 -931.127 -0.16299 -0.941172 0.296023 2.72796e-08
337.237 93.6539 324.299 -0.30933 -0.0836103 -0.947272 0.000501955
195.555 -290.273 -891.208 -0.575478 0.343577 0.742145 2.33549
316.831 -148.721 793.02 -0.954292 0.270783 0.126502 3.07705e-08
257.702 14.8199 -1010 -0.151441 -0.355451 0.922345 1.85802
7.70239 -349.915 302.361 -0.405106 0.185194 -0.895317 2.20037
-339.509 85.0493 -852.832 0.638087 0.7697 0.020191 3.75148e-08
-326.362 -126.444 -74.0247 0.256414 0.511128 -0.820366 1.08786
-153.96 314.319 -367.74 -0.208432 -0.633563 0.745087 0.000256933
-33.1264 -66.2014 1010 0.823268 -0.096078 -0.559464 4.13416e-09
88.479 -338.632 489.398 -0.117817 0.795562 -0.594306 0.000592968
76.2711 236.672 1010 -0.950309 -0.120561 -0.287016 8.1493e-09
139.928 320.812 793.482 -0.331051 -0.496513 -0.802421 0.000555977
40.268 -347.676 357.198 -0.923455 0.34171 0.174541 3.84133e-08
224.099 -268.848 -362.1 0.128532 0.983907 0.124124 1.05838
-253.544 -100.769 -1010 0.476543 -0.205506 0.854795 2.10284e-08
63.4847 -205.844 1010 0.453157 0.877856 -0.154974 0.000257346
350 -0.294033 -789.197 0.0542221 0.487915 0.871205 2.39769e-05
-182.986 298.356 0.731267 0.646271 -0.00778077 0.763068 4.7795e-08
-274.332 217.352 639.47 0.632545 0.2194 -0.742799 0.230155
-263.271 -230.626 797.405 0.32115 0.812349 -0.486776 0.985029
-48.349 -346.644 373.429 0.416933 0.0154407 -0.908806 0.000563806
317.305 147.708 432.126 0.168315 0.462812 -0.87033 0.000698615
-248.769 -246.199 53.6863 0.745826 -0.656836 0.110952 2.23228
-277.758 212.957 -1008.96 0.0962791 0.785499 0.611327 0.508981
152.176 315.186 -607.087 -0.987995 -0.15443 0.00418449 5.64997e-05
-334.174 -104.055 -914.961 0.900739 -0.0776573 0.427362 0.000408617
116.055 317.675 1010 0.239127 0.908719 -0.342124 2.53231e-08
-139.755 320.887 -862.589 -0.775597 0.414343 0.476203 0.000350187
347.469 -42.0158 749.854 -0.102637 -0.0503575 -0.993443 4.64037e-08
182.933 298.388 -560.601 0.13545 -0.576872 0.805526 0.000264479
57.9435 -345.17 245.118 0.81482 0.556485 -0.16246 0.00010109
-214.723 276.395 319.852 0.18676 -0.545681 -0.816917 7.71473e-05
-347.825 38.9602 9.00951 0.381646 0.640245 0.666658 0.000870728
320.751 137.742 -1010 -0.868217 0.350389 0.351322 3.96131e-08
271.544 -220.825 -444.522 0.574245 0.767059 0.286117 1.39174e-08
-316.052 150.371 324.19 0.962857 -0.199445 0.18201 4.97952e-08
-333.112 -107.409 -220.449 0.0771746 0.0937147 0.992603 0.000780877
250.51 244.427 -183.952 -0.965093 -0.048702 0.257341 0.000678411
-323.126 -134.499 -934.015 0.347916 -0.936856 0.035427 0.00011467
-192.484 -206.749 1010 0.720268 0.404357 -0.563658 0.000687604
134.82 322.991 253.308 -0.419729 -0.697173 0.581186 5.23988e-05
53.1658 -345.938 732.127 0.23002 0.442525 -0.866754 2.08312
288.033 168.24 1010 -0.522416 -0.831431 0.18922 0.000721483
-61.1563 -344.616 -6.92867 0.970977 -0.0011411 0.239169 3.78091e-08
340.465 81.1405 -992.106 0.637149 -0.0132069 0.770627 1.65693e-08
-308.932 -164.502 888.935 -0.625886 0.68188 -0.378559 0.000438977
289.675 5.2516 -1010 -0.834852 0.517629 0.187303 0.000668712
237.009 257.54 -545.462 -0.454957 -0.770103 -0.447164 8.9249e-09
-342.239 73.2986 48.2893 0.54567 -0.82716 -0.134351 0.000837973
55.8556 -138.153 1010 0.262791 0.792089 -0.55094 0.000204206
268.028 -225.08 929.02 -0.827673 0.454982 0.328555 0.000364994
-217.182 -274.467 553.973 -0.88431 0.375817 -0.27705 0.000555494
-61.7096 -344.517 -373.334 0.112355 0.0538033 0.99221 0.00045233
-136.195 322.414 -655.76 0.348202 -0.838618 0.418897 3.62114e-05
326.588 125.859 52.0809 0.115909 -0.992262 0.0445087 1.11069e-09
347.77 -39.4428 -807.986 -0.282988 -0.616988 0.734332 0.00028003
-35.6179 348.183 155.49 -0.705217 -0.573746 -0.416514 4.39901e-08
-243.844 251.078 -898.758 0.963894 0.266205 0.00662891 0.000735662
108.547 332.743 367.589 0.638867 0.0494297 -0.767728 4.92019e-08
230.716 -263.192 297.606 -0.87793 0.253008 0.406479 2.09243
227.795 -265.724 -814.922 -0.787874 0.600438 -0.136857 4.41089e-08
-185.35 296.893 -12.1169 -0.524132 -0.822107 -0.222321 4.21976e-08
-49.8109 140.348 1010 -0.00745887 0.936704 -0.350042 0.000252815
-341.948 -74.6439 -776.144 -0.486989 -0.688094 0.537931 2.40534
-349.951 5.86894 154.74 0.392592 -0.79684 -0.459258 1.55834
-286.462 -201.096 -422.674 0.691673 0.501029 0.520152 0.00034085
-103.471 -334.356 184.667 0.877655 0.424184 0.223135 1.47765
-57.1968 -345.295 511.437 0.990243 0.0764713 0.116497 1.56817e-08
-125.86 -326.587 146.832 0.764764 0.643467 0.0329467 0.000467236
-128.637 325.504 274.648 0.877517 0.425901 -0.220392 4.62272e-09
-140.305 320.647 -443.172 0.257554 -0.893615 0.367585 0.0635586
-238.471 233.867 1010 -0.472476 0.778489 -0.413184 0.000671161
-118.176 -329.446 283.047 -0.452835 0.679999 -0.576665 1.43211
343.917 64.9702 -518.835 -0.87987 0.329095 -0.342821 3.01926e-08
-346.778 -47.3811 -513.142 -0.761155 -0.0789699 0.643744 0.578152
-168.719 306.65 801.476 0.52061 -0.810286 -0.269077 0.00077498
189.782 294.08 48.5336 -0.51807 -0.401019 -0.755505 0.00023651
22.6219 -349.268 482.963 -0.725358 0.674644 -0.136791 4.25024e-08
183.759 297.88 -544.567 -0.253434 0.626142 0.737372 3.11802e-08
-328.729 120.155 -342.312 0.553444 -0.508384 -0.659732 1.27588
-102.978 -334.508 -252.465 0.941561 0.320118 0.104823 0.000352811
209.368 280.473 241.922 -0.938389 -0.0979049 0.331422 0.000542865
-338.655 -88.3892 -257.555 0.894389 -0.100529 -0.435846 5.52197e-09
-59.1855 -344.96 869.813 0.577089 0.781817 -0.236073 0.000729038
-253.229 -241.61 -254.738 0.919877 0.385302 -0.0732771 0.000578461
-343.897 -65.0734 -128.646 0.441524 0.894965 -0.0639888 4.41109e-08
-155.981 313.321 326.433 0.627271 -0.706252 -0.328237 0.0009458
205.386 47.0155 -1010 -0.362066 0.826014 0.431982 9.64127e-09
251.327 243.587 -1006.39 -0.771176 -0.595321 0.225569 0.000245874
-228.651 -241.595 1010 0.269954 0.892519 -0.361295 2.38103
132.26 -324.048 97.687 -0.861869 0.0853939 -0.49989 2.2083
169.868 -306.015 594.106 0.640616 0.675871 -0.36443 0.000284922
36.5529 -348.086 -481.94 0.918937 -0.0861093 0.384889 1.907
131.952 -324.174 -619.305 -0.695685 -0.468119 0.544874 0.000426786
156.838 312.893 -793.873 0.0423203 -0.991173 0.125638 3.82774e-08
-188.574 -61.4513 -1010 0.966071 0.216006 0.141591 2.96409e-05
-105.634 -333.679 -698.139 -0.30333 0.951958 -0.0420333 0.000296233
-188.699 294.776 -889.004 0.510695 -0.726582 0.45964 0.000746809
349.996 1.7629 -1000.8 -0.583747 -0.505348 0.635502 2.23384e-08
82.3347 -340.178 -284.802 -0.392898 0.862057 -0.320139 0.000894506
-198.357 278.473 1010 -0.425933 -0.893684 -0.141105 2.9662e-08
179.864 -300.248 -974.813 -0.272312 0.711344 0.647947 9.56634e-05
-197.591 288.891 -713.941 -0.0851597 -0.75557 0.649509 0.000412542
-235.565 -258.861 421.883 0.638858 -0.133888 -0.757585 0.000441761
10.6034 218.193 -1010 -0.245954 0.777968 0.578163 2.48853e-08
184.26 297.571 -435.326 -0.295761 -0.913334 0.279903 0.000215977
-12.8289 349.765 597.56 0.816163 -0.57767 0.0132405 3.93359e-08
304.495 -162.916 1010 -0.246711 0.694175 -0.676206 2.84906e-05
-224.725 268.326 714.297 -0.43992 -0.69933 -0.56339 0.000996502
7.1289 349.927 -305.781 -0.73289 -0.680239 0.0121263 0.000427897
-272.144 -220.086 -1002.89 0.878955 -0.460902 0.122505 1.94125
-72.7191 -342.362 -679.525 -0.771815 -0.489941 0.40529 9.05384e-09
-252.601 -242.265 806.115 -0.317621 -0.623039 -0.7148 3.35213e-08
197.844 -288.717 -777.289 0.384036 -0.673556 0.631537 4.63845e-08
342.108 -73.905 995.257 0.661232 0.653738 -0.367964 1.4178e-08
8.46104 349.898 712.403 -0.624833 -0.777671 -0.0693633 1.71778
-185.116 -297.039 1006.29 0.990653 0.0857467 -0.10609 0.000525316
303.475 -174.364 -573.28 0.458179 -0.726366 0.512313 3.86899e-08
137.145 314.805 1010 -0.919616 0.381955 -0.0917384 0.000882185
341.813 -75.2574 325.751 -0.69137 0.499834 -0.521702 0.000132672
294.818 -188.633 -655.576 0.254907 0.947688 0.192119 0.000437827
319.12 -143.744 845.641 0.488807 0.666402 -0.563006 0.0006223
-341.906 74.8372 345.009 0.335248 -0.762189 -0.553784 3.3884e-08
-165.936 -308.165 774.79 0.864857 -0.309373 -0.395361 1.39102
39.5083 347.763 546.56 -0.35248 0.497341 -0.792723 0.000713672
243.09 -251.808 -688.423 -0.894198 -0.445687 0.0421098 8.30875e-09
285.312 -202.724 951.507 -0.740221 0.588827 0.324587 0.00059891
2.98903 349.987 -937.345 -0.80298 0.0972159 0.588024 4.55538e-08
-109.163 -332.541 810.12 0.514337 -0.629767 -0.582108 0.000124923
-244.453 -250.485 425.77 0.960158 0.0926865 -0.263641 6.39901e-09
228.285 -149.452 1010 0.248743 0.189811 -0.949789 0.000567967
-152.448 315.055 595.394 -0.85655 -0.45075 -0.25129 2.14864e-08
-40.2375 -347.679 106.836 -0.292275 0.516527 0.804845 1.15567
349.905 8.17449 715.952 -0.80962 -0.481544 -0.335605 0.000529701
205.695 -283.178 700.408 0.0446368 -0.649339 -0.759188 1.74727
230.238 263.611 -863.33 -0.221094 -0.739883 0.635367 0.000241519
91.037 337.953 270.619 -0.726758 -0.683164 -0.0714808 0.000645204
52.7409 346.003 824.156 0.574239 -0.81854 -0.015559 0.128754
346.51 49.3016 441.002 0.218181 -0.296144 -0.92989 0.000484433
-251.414 -243.497 -640.906 0.859146 -0.243382 0.450148 0.000224286
-90.5723 -203.053 1010 0.14231 0.989781 -0.00902582 0.000519051
257.938 236.576 -835.762 0.681066 -0.728667 0.0720729 0.000272889
-184.282 -297.557 929.389 0.505436 -0.583763 -0.635417 7.73106e-05
-140.857 320.405 663.512 0.887818 -0.438413 -0.139906 0.000816711
-219.468 -272.642 211.376 0.624776 0.336301 0.704668 0.000293589
349.652 15.608 -8.93669 -0.855067 -0.516033 0.050705 0.000589059
220.036 -102.415 -1010 -0.777167 0.195128 0.598278 0.000197039
83.8224 -329.327 -1010 0.39658 0.665168 0.632674 0.000659052
-311.227 -160.117 -938.39 -0.394903 0.15774 0.90508 0.000981647
50.1095 -346.394 -692.42 0.255956 0.895851 -0.363232 0.000768949
-275.998 -215.232 57.986 0.644384 -0.266394 -0.716801 2.91129e-08
-160.002 311.287 -370.167 0.303806 0.554046 0.775071 0.319135
-339.25 -86.0789 454.676 0.791003 -0.59501 0.142396 1.10364e-08
-295.33 187.831 -458.402 -0.352593 -0.871171 0.341672 0.00045215
-192.223 292.49 -124.193 0.458331 0.199276 0.866153 2.60665e-08
-184.239 -297.584 972.085 0.758369 0.628517 0.172748 0.000729743
349.949 6.00047 597.489 0.673764 0.585082 -0.451355 1.44153e-08
-5.31623 -349.96 87.0684 0.00599215 0.676973 0.735983 0.000515253
-29.0828 348.79 479.175 0.786759 -0.509999 0.347723 2.76408e-08
263.025 230.907 588.371 0.772252 0.234012 -0.590648 0.000432087
-347.262 43.6962 981.466 0.166789 0.133146 -0.976961 1.897
152.583 314.99 -914.776 0.548062 0.306843 0.778123 4.80665e-08
-209.948 280.039 955.504 0.753188 -0.485257 -0.44411 1.39832
337.278 93.5056 -554.728 -0.876495 0.358314 0.32151 1.13321e-05
348.731 29.7815 344.708 -0.340854 0.66973 -0.659758 0.000371332
272.169 -220.055 -649.909 -0.679475 0.70202 -0.213263 3.70773e-08
-345.02 -58.8334 -108.918 -0.112462 0.931265 0.34655 2.72724e-08
169.167 -145.995 1010 0.476505 0.84474 -0.243633 4.3185e-08
334.991 -101.397 179.089 -0.428893 0.794889 0.429187 1.82248
-58.8651 -345.014 757.262 -0.780349 0.301031 -0.54812 0.000861256
-212.495 -278.111 499.206 0.943755 0.236999 0.230559 9.22243e-05
-328.61 -120.481 -319.225 0.828286 -0.0946798 0.552248 0.00047549
-332.35 -109.741 699.699 0.961323 -0.273154 0.0352821 5.78306e-05
-342.586 -71.6589 465.459 -0.0526859 0.734736 -0.676304 0.000263852
317.359 -147.592 46.9598 0.313139 0.787635 -0.530636 0.000366402
18.7385 349.498 -95.1798 -0.0480334 -0.300148 -0.952683 3.76434e-08
-21.8606 349.317 -149.097 0.360652 -0.899629 -0.246166 3.77894e-08
134.01 323.328 919.977 0.670502 -0.0125461 -0.741802 0.000381498
54.8873 345.669 953.834 0.344754 0.541399 -0.766833 0.000865073
-221.934 -270.638 -820.018 -0.0880302 -0.82303 0.561134 0.000559606
36.8924 348.05 -154.235 -0.35319 -0.611161 -0.708335 1.66136
-263.867 229.944 765.456 -0.094696 -0.334222 -0.937725 1.25317e-08
-249.654 245.302 -763.569 0.176275 0.529555 0.829758 1.95454
349.992 -2.41217 -751.482 -0.584916 -0.169765 0.793129 6.96302e-10
-5.16875 349.962 -806.146 -0.452108 0.681686 0.575242 0.00022618
-349.367 21.0377 354.569 0.831988 -0.159046 0.531508 2.0052e-08
280.543 209.274 433.803 -0.99036 0.0955084 -0.100327 0.000300997
350 0.534823 913.343 -0.744983 -0.15259 -0.649397 0.000102147
-286.014 201.733 -374.48 0.142635 0.903816 0.40345 0.000256609
-190.318 293.733 -746.71 -0.965868 0.0221586 0.258083 2.23477e-08
332.577 109.052 915.743 0.244362 0.648011 -0.721366 0.00073983
-47.0908 201.868 1010 0.844863 0.389354 -0.366892 0.000713454
-269.304 131.054 -1010 -0.0919971 0.518876 0.849885 3.57078e-08
2.67059 -349.99 996.251 0.187317 0.946325 0.263405 1.65079
160.268 311.15 -908.921 -0.199215 0.880213 0.430741 0.00017921
347.945 37.8742 584.477 -0.941806 -0.148251 0.301701 0.000677091
-315.736 151.032 409.164 0.249125 -0.704028 -0.665042 1.21378e-08
-58.1431 -345.137 -513.913 0.962377 -0.250652 0.104899 1.83996e-08
244.408 -250.529 -272.847 0.402778 0.825262 -0.39587 0.00023423
-305.778 170.294 -142.581 0.904 0.298463 0.306113 5.44788e-05
300.247 179.865 -531.916 -0.509175 0.4447 0.736874 2.80523e-08
-347.612 40.8149 681.856 -0.543552 -0.350685 -0.762609 0.000210326
267.034 226.258 186.199 -0.527285 -0.1241 0.840577 3.55387e-08
31.1424 293.997 1010 0.883657 -0.458688 0.093572 0.000612943
124.064 327.274 515.488 0.634388 -0.428039 -0.643688 0.000788026
-345.171 -57.939 300.555 0.216599 0.944711 0.246184 0.000833156
345.714 54.6081 314.198 -0.77215 -0.421132 -0.475848 5.00726e-09
-51.7965 346.146 -891.498 0.812925 0.543008 0.210465 2.98865e-08
93.3937 337.309 875.44 -0.230345 -0.909491 0.346074 0.000508935
348.747 29.5936 -620.604 -0.188137 -0.0016586 0.982141 1.61433
335.582 99.4208 -910.087 0.771325 -0.591711 0.234385 0.00029129
134.489 -323.129 -579.346 0.147934 0.272639 0.950675 0.000382694
134.446 -323.148 -275.614 -0.293394 0.928543 -0.227438 1.91199e-08
-346.531 -49.1552 -620.145 -0.3646 0.731621 0.576019 0.000490946
-62.713 344.336 177.949 -0.820404 0.118894 -0.559287 0.000934066
-99.2565 335.631 2.06719 -0.80561 -0.535533 -0.253371 1.08043e-08
-310.687 -161.164 -84.3156 0.59276 0.727193 -0.346159 0.00012335
29.4982 348.755 -652.865 -0.0714865 0.825629 0.559666 0.000386197
-256.234 238.42 892.88 0.674544 0.4563 -0.580329 3.86689e-08
198.119 -288.529 38.309 -0.183744 0.967348 0.174575 0.14871
-171.867 -109.156 1010 -0.0758945 0.987077 -0.141132 2.20867
199.998 -287.23 -730.864 -0.285705 0.957058 -0.049127 0.000529222
305.513 170.769 -136.665 -0.83797 0.49235 -0.235367 0.000130232
-292.37 192.405 635.643 0.0641084 -0.992296 -0.106016 0.000287774
47.6276 346.744 256.462 -0.638842 -0.450121 -0.623917 3.96024e-08
330.237 115.946 507.892 0.570673 -0.424244 -0.7031 0.00071941
-104.285 -334.103 822.644 0.921622 0.317349 0.223389 3.32636e-08
123.671 327.423 800.973 0.798096 -0.566519 -0.20518 6.38411e-10
-58.1555 345.135 -830.138 0.924334 -0.38099 0.0213149 2.27859e-05
-21.9752 349.309 11.6121 0.0417608 -0.973115 -0.2265 3.4745e-05
306.15 169.623 96.917 -0.442553 -0.873421 -0.203182 4.17676e-08
-184.467 -147.707 1010 -0.175725 0.282785 -0.942949 0.00051748
-304.739 172.146 -631.252 -0.400485 0.285746 0.87061 4.8556e-08
-324.702 130.646 -687.624 -0.436374 -0.488562 0.755569 0.000504597
181.656 299.167 -818.078 0.429712 0.274051 0.860374 0.000212917
-252.167 242.718 534.479 0.233623 -0.215571 -0.948129 0.000697217
290.524 -195.182 269.867 -0.264841 -0.0260545 -0.96394 1.12375e-08
85.7913 339.323 -719.711 0.79105 0.468978 0.392809 2.16778
-344.165 4.92676 -1010 0.987623 0.0218659 0.155313 3.91452e-08
340.418 -31.2868 1010 0.811845 0.436635 -0.387631 0.000562939
249.237 -245.725 108.343 -0.722382 0.102559 -0.683847 1.35835e-08
-339.404 85.468 -819.124 0.537678 0.439493 0.719547 0.000127864
336.013 -97.9561 -33.4345 -0.944094 -0.327576 -0.0371409 0.000660907
183.391 78.4177 1010 0.279823 -0.778217 -0.562207 0.000139497
-317.646 87.413 1010 -0.252665 0.266475 -0.930135 4.97313e-08
-191.023 -293.275 -648.592 0.495484 0.55069 0.671741 2.91863e-08
-120.408 167.618 -1010 -0.551669 0.0598173 0.831915 0.000837948
246.237 248.731 631.944 -0.129776 0.43195 -0.892512 0.00095594
-295.208 188.021 665.534 0.68513 0.380291 -0.621269 0.00076966
-348.771 29.3015 877.989 -0.55906 0.37587 -0.739036 9.2807e-05
331.17 113.253 882.967 -0.35441 -0.629796 -0.691195 0.000321088
235.13 259.257 -693.914 0.731239 -0.682107 0.00437206 2.0915
300.316 -179.751 -263.969 -0.052607 0.602012 0.796752 7.31843e-05
-285.726 202.14 -743.025 0.250124 0.939481 0.234124 1.74496e-05
-229.358 264.377 -702.403 -0.0402584 -0.968993 -0.243787 0.000144827
61.6935 344.52 483.556 0.461246 -0.838836 -0.289146 0.000579081
213.839 277.079 769.766 -0.223528 -0.390848 -0.892902 0.000462192
289.205 197.131 -900.505 -0.222378 0.870291 0.439479 3.32209e-08
-55.4702 -345.576 564.495 0.934787 0.305233 0.181675 0.000466805
-79.9006 340.758 -628.157 0.931463 -0.358796 -0.0603533 0.000300508
-196.046 289.941 980.972 0.127906 -0.97937 0.156442 0.000774827
79.0268 340.962 -383.259 -0.834739 -0.221837 0.503983 0.000926695
-114.085 -330.885 276.523 -0.938614 0.207604 -0.275507 0.000577578
-338.314 -89.6857 -822.564 -0.361149 -0.492439 0.791881 4.08275e-08
-95.1133 336.829 134.71 0.0924354 -0.823741 0.55938 2.92812e-08
211.379 267.207 1010 0.723463 -0.64306 -0.25115 0.000237547
-340.914 79.232 -634.596 -0.112037 -0.904346 0.411833 2.44185e-08
315.624 151.266 -367.819 -0.93214 -0.345397 0.1087 0.000651445
-272.813 219.255 -158.869 -0.0145422 -0.268875 0.963065 4.6416e-05
-307.188 167.737 -792.634 0.943293 -0.220344 0.248286 2.71163e-05
290.461 195.276 154.755 -0.767741 -0.0320201 -0.63996 9.81046e-10
-300.247 -179.866 -925.235 -0.673581 0.677853 0.294625 3.18657e-08
348.43 -33.1172 -93.789 -0.0223063 0.274718 0.961266 0.000803387
125.38 -242.968 -1010 -0.944014 -0.325466 0.053931 0.000875282
-90.9371 -337.98 -383.706 0.891547 0.432776 0.133597 1.03938e-08
348.257 -34.8819 -753.445 -0.398803 0.217395 0.890896 8.51966e-09
302.8 -175.533 166.569 -0.701826 -0.0145153 -0.712201 0.542765
44.6178 347.144 -443.858 -0.924036 -0.270182 -0.270479 0.00047123
-344.696 60.7018 250.766 0.0868712 -0.0073034 -0.996193 0.000487051
-157.345 -312.638 507.958 -0.68429 0.723622 -0.0901023 0.000398836
92.7308 -337.492 267.284 -0.57774 0.714222 -0.395099 2.09965
-108.757 -56.4451 -1010 0.799774 -0.287902 0.526758 0.00073119
-334.389 -103.363 156.756 0.814637 -0.323681 -0.481245 0.000169123
229.799 263.993 -589.036 -0.692297 -0.603782 0.395186 4.23721e-08
-97.0754 336.268 -960.305 -0.430545 -0.505102 0.747999 0.000439792
344.135 63.8063 902.484 0.591729 0.617687 -0.517996 0.000561571
163.938 -309.232 617.748 -0.0766511 0.58937 -0.804218 1.04896
236.998 257.55 98.6955 0.182978 0.104047 -0.977596 0.000964154
174.798 303.225 -26.757 -0.593787 -0.204291 0.778256 0.000570686
-335.222 -54.9606 -1010 0.503695 0.852523 0.139625 3.41334e-08
-316.85 148.682 319.352 0.199524 -0.911437 -0.359824 2.0043
97.0544 336.274 842.175 -0.728546 -0.589185 -0.349402 0.884442
104.83 333.932 358.752 -0.772064 -0.433839 0.464437 3.24903e-08
-235.682 -258.755 -906.339 0.975299 0.209595 0.0697225 0.000684733
-292.104 192.809 -497.354 -0.730177 0.246246 0.637342 1.59465
320.268 -141.168 220.061 -0.431631 0.61575 0.659202 2.99983e-08
-252.343 242.535 254.587 0.571237 0.692138 -0.441172 0.00011928
-63.7152 -344.152 -12.6147 0.0943076 0.334044 -0.937827 4.15296e-08
211.169 279.12 824.469 0.868705 -0.485212 -0.0996045 0.000878099
329.865 -117 -779.476 -0.0342614 -0.0185204 0.999241 0.000538935
349.615 -16.4177 -488.029 0.785654 0.150632 0.600049 7.0962e-10
-106.781 138.867 1010 -0.932222 0.286545 -0.221031 0.000411051
50.9789 346.267 728.523 -0.429697 0.150571 -0.890331 0.000557145
-158.032 241.223 -1010 -0.380491 0.694727 0.610394 3.19001e-08
-69.8579 -342.958 231.678 -0.831765 0.472896 0.29075 0.000441328
-293.056 191.359 -768.378 0.208882 -0.28859 0.93439 9.35078e-05
266.796 226.538 -454.859 0.61248 -0.581491 0.535478 1.24085e-08
255.945 -238.73 -567 0.169531 -0.536174 0.826908 0.000970082
-258.494 -235.968 -595.967 0.99879 0.0490599 -0.00342234 0.000424161
-344.343 62.6752 13.8923 0.597345 0.651601 0.467541 1.28679e-08
-135.021 -322.908 -768.447 -0.378374 0.600441 0.704488 4.67947e-08
-308.643 165.044 955.855 -0.0644955 -0.153422 -0.986054 0.000641576
318.929 144.168 583.686 -0.47153 0.329177 -0.818109 4.37946e-08
220.532 -271.782 797.569 -0.123428 -0.193307 -0.973344 3.87347e-08
-208.363 281.22 346.159 0.590867 0.622775 -0.512862 2.08736e-08
133.359 -323.598 517.96 -0.221589 0.126865 -0.966852 0.000789697
349.794 12.0018 -633.997 0.215446 -0.845424 0.488714 0.000154877
-291.671 -193.463 691.878 0.972889 -0.214407 -0.0866997 2.26625
-280.857 -208.852 -888.639 0.618597 0.512166 0.595839 2.7172e-08
234.911 -259.455 -680.059 0.338314 -0.43852 0.832612 4.78036e-08
334.947 101.542 286.43 -0.0288978 0.125034 -0.991731 4.04266e-08
10.1619 -349.852 -653.245 0.532043 0.846556 0.0165498 2.84406e-08
-216.653 274.884 -633.635 -0.322565 0.774661 0.543923 2.57586e-09
312.06 158.488 -425.766 -0.650756 -0.689504 -0.317964 4.2473e-08
-288.79 197.738 -752.826 -0.750742 0.503654 0.427456 1.84988
-188.689 -294.782 -248.54 0.564961 0.121701 0.816093 2.62919e-09
-288.108 -198.731 152.55 0.315884 0.697002 0.643743 0.000429144
-13.4038 349.743 -259.134 -0.531653 -0.440893 0.723159 5.34695e-09
165.566 308.363 941.281 0.459707 -0.821139 -0.33823 0.000838111
-112.225 -263.755 1010 -0.761173 0.0802282 -0.643568 0.000452615
178.808 -37.2332 1010 0.586078 0.247049 -0.771673 1.53056
194.465 -235.384 -1010 0.361569 0.675227 0.642912 1.54664
58.4923 -345.078 346.726 -0.318599 0.397596 -0.860472 1.42419e-08
-60.3528 344.757 138.677 0.557188 -0.813475 -0.166735 0.000317725
-348.966 26.8792 991.503 0.685913 -0.71172 0.151586 1.08983
-318.026 146.15 -980.503 -0.815694 -0.0549704 0.575867 2.44018e-08
81.7448 340.32 -919.772 -0.952224 0.090488 0.291688 0.000492622
316.612 149.187 -810.361 -0.603258 -0.336103 0.723266 0.0005714
-154.342 -314.131 -648.856 0.737933 0.621641 -0.26271 0.000804381
349.867 9.66225 680.736 -0.147926 0.87594 -0.459182 8.40774e-05
336.631 95.8095 56.1811 -0.22423 -0.415295 -0.881618 1.20677e-08
304.141 173.2 236.76 -0.700946 -0.611416 0.367214 0.000311961
-160.681 -310.937 -640.779 -0.537153 0.249285 0.805806 0.000647889
-244.403 -250.533 975.342 0.953613 0.281546 -0.106559 0.000893687
-240.366 -254.409 608.256 0.126303 -0.0283707 -0.991586 4.84016e-05
-235.371 -208.428 1010 0.798173 -0.57773 -0.170726 1.22387e-08
333.844 105.11 -777.791 -0.384759 -0.900504 0.202617 0.000458363
268.724 224.249 956.172 -0.304974 -0.21025 -0.928863 0.000368429
-315.122 152.31 759.221 -0.568429 -0.751962 -0.333829 0.000111341
-349.844 -10.4393 -135.106 -0.17797 -0.57476 0.798735 2.67437e-08
346.812 47.1352 798.434 -0.469416 0.875161 0.117229 0.000574204
-333.269 106.918 -38.8126 0.915471 -0.0052475 0.402349 0.00026987
-44.4346 8.28655 -1010 0.969637 0.172372 0.173472 0.000697754
334.749 -102.191 359.605 -0.60331 0.292699 -0.741852 0.304461
-269.049 -223.859 709.945 0.97775 0.20886 0.0195712 0.000768422
-160.194 105.691 1010 0.921699 0.16265 -0.35216 6.10729e-09
-284.394 204.01 794.463 -0.0240661 -0.990719 -0.133778 0.000469895
187.995 295.225 -731.772 -0.808727 0.179684 0.560066 0.0908395
302.512 -176.03 642.029 0.103788 0.0155666 -0.994478 0.000160419
190.961 -293.316 691.943 0.128303 0.340706 -0.931374 0.579541
154.831 313.891 -8.90921 -0.381518 -0.832657 -0.401404 0.000265738
201.954 -285.857 546.217 0.054596 -0.0145744 -0.998402 3.82125e-08
290.999 -194.472 -4.64032 -0.747438 0.180102 -0.639453 0.0004386
-152.375 315.09 309.775 0.976188 0.214489 -0.0324132 4.73447e-08
20.9029 -349.375 -306.947 -0.966315 -0.0150926 0.256918 1.52193e-05
349.436 -19.8574 -405.882 -0.782455 -0.269634 -0.561304 2.09914e-08
116.568 -330.018 213.263 -0.682874 0.237995 -0.690682 0.000252921
224.547 268.475 -573.991 0.670737 0.161231 0.723959 0.000165678
295.066 -188.244 -677.202 -0.346324 0.54391 0.764344 0.000217588
58.8605 -345.015 785.185 0.634657 0.43314 -0.64 1.56405
-103.302 -334.408 37.7881 0.122992 0.741185 0.659938 0.000369736
168.265 -306.899 -100.966 -0.292565 0.900967 0.320414 4.56108e-08
231.886 262.162 -773.599 -0.748619 -0.206544 0.630007 0.000984984
349.511 18.5012 -327.266 -0.387632 0.351198 0.852292 0.00044675
-172.158 304.732 -487.266 0.976792 0.213771 0.0133819 0.000375767
-323.072 -3.73345 -1010 0.707065 -0.707008 0.0141164 2.99364e-08
343.657 -66.3314 -564.367 -0.286509 0.952862 -0.0998311 0.631241
-61.9291 73.156 1010 -0.252808 -0.172516 -0.952012 1.38413e-08
-339.494 -85.1094 -660.374 0.992168 0.0408681 0.118039 1.96515
-237.681 256.92 -498.436 0.836399 0.252851 0.486317 0.000393796
-348.507 -32.2944 -381.63 0.88467 -0.336394 0.322796 0.000359823
51.6626 -346.166 359.375 -0.964696 -0.169797 -0.201323 2.47674e-09
-114.083 330.885 -397.297 -0.435736 0.237269 0.868238 0.000478909
-175.297 90.6359 1010 -0.767736 -0.629053 -0.121957 0.000889406
214.69 276.42 910.56 0.311661 -0.947451 0.0721378 0.000926669
243.59 251.324 574.623 -0.470312 0.756369 -0.454656 6.65673e-05
-44.9824 -347.097 -493.449 0.406869 0.859913 -0.308233 1.68073
326.537 125.989 532.086 -0.975749 0.00415574 -0.218853 0.000722234
-56.3352 345.436 -354.808 -0.223467 -0.501304 0.835917 0.000471948
3.25374 349.985 -249.611 0.229647 -0.734939 -0.638065 6.89037e-09
-238.976 -255.716 464.953 0.557262 0.827334 -0.0705594 0.000856607
-4.56842 -336.847 -1010 -0.134094 0.838857 0.527577 0.000750996
2.32707 -349.992 172.59 -0.0117393 -0.424159 -0.905511 2.17488
-88.4435 -338.641 79.0279 0.719566 0.647591 0.250701 3.93787e-05
224.929 268.155 -873.981 0.0809007 -0.973209 0.215221 0.000347343
-192.82 -292.097 957.71 -0.343559 0.453683 -0.822277 0.000174991
-215.781 119.536 1010 -0.832087 -0.318265 -0.454245 4.58127e-08
-161.646 71.3206 1010 0.992582 -0.0470974 -0.112086 0.000553057
337.942 91.0783 -693.44 0.567699 0.6825 0.460339 0.000159724
330.412 -115.448 769.379 -0.674571 0.712215 0.194173 2.32783
-32.2743 -348.509 569.943 0.707411 -0.148454 -0.691037 0.000131348
303.165 -174.902 -998.907 -0.142371 -0.00146165 0.989812 7.84203e-09
-91.6052 -337.799 -425.577 -0.0606183 0.966481 0.249479 3.1899e-08
291.509 5.04545 1010 -0.963237 -0.123851 0.2384 2.10089e-08
296.299 -186.298 -874.655 -0.919214 -0.392429 -0.0323307 0.000484568
-205.54 -283.29 -909.367 0.59735 0.750608 -0.282419 0.000204341
-235.78 258.666 625.297 0.315456 -0.772648 -0.550911 5.70802e-05
-165.685 -169.181 1010 -0.77209 -0.399374 -0.494345 0.00096546
-332.955 107.892 595.268 0.98689 0.088593 -0.134907 0.000551932
330.358 87.4904 -1010 -0.280849 -0.959654 0.0137046 0.544255
-48.3596 346.643 542 0.857188 0.193266 -0.477365 0.00021009
-198.021 -288.596 -683.426 0.748705 0.650581 -0.127223 0.000756906
348.429 -33.1279 -403.92 -0.91642 -0.236017 -0.32322 1.43634e-08
99.3669 335.598 707.597 -0.454495 0.786146 -0.418818 0.000950455
157.933 -169.607 1010 -0.957795 0.166498 -0.234323 0.000559956
-208.352 -281.228 844.813 0.392873 -0.557886 -0.731036 5.21257e-05
340.834 -79.5764 -910.719 0.440485 0.891149 0.108752 2.26987e-08
-237.324 257.249 521.012 -0.144109 -0.562961 -0.813823 0.000516668
-335.857 98.4895 993.607 0.0372568 0.99024 -0.134297 4.51639e-08
-208.576 281.063 196.144 0.904542 0.0283207 -0.425443 0.000292577
-274.079 217.671 -864.783 -0.357361 0.834836 0.418738 0.000124019
-337.988 -90.9058 -809.935 0.975005 -0.166899 0.14666 7.46009e-05
335.407 -100.011 192.785 0.218743 0.229926 -0.948307 2.84516e-08
112.429 331.451 959.805 -0.44659 -0.815084 -0.369047 5.65044e-07
242.207 252.657 40.8604 -0.346821 -0.835012 -0.427165 0.000579577
-348.927 27.3858 174.08 0.404539 0.611877 0.679673 0.000109982
237.546 -257.044 462.541 0.533325 -0.295431 -0.792644 9.52754e-09
-218.342 273.545 820.905 -0.345219 -0.60338 -0.718858 4.63703e-08
-179.528 -300.449 183.939 0.760609 -0.274912 -0.58813 0.437027
-285.762 202.09 925.066 -0.36726 0.678651 -0.636045 0.000170438
117.445 97.8477 -1010 -0.260019 -0.965586 -0.00578927 3.6324e-08
308.563 -165.193 -234.69 -0.765514 -0.641847 0.0449567 1.84254e-08
-348.151 35.9261 929.015 -0.368909 -0.264595 -0.891008 4.19303e-08
-331.019 -113.693 -924.337 0.25094 -0.579816 0.77514 1.41941e-08
170.373 -305.733 -974.483 0.298192 0.890154 0.344539 0.000371613
106.531 333.393 -217.989 0.829249 -0.552223 -0.0859992 0.000766676
-102.268 334.726 -126.233 -0.802505 -0.503875 -0.319524 4.75526e-08
-67.576 315.994 -1010 -0.89339 -0.438327 0.098608 1.12108e-08
221.319 -271.142 -754.098 0.242903 -0.809278 0.534853 0.000861866
-207.386 -281.941 275.474 0.469388 -0.145668 -0.870894 1.0814
200.813 -286.66 -371.997 -0.749036 -0.571743 0.334746 3.48068e-08
-10.0479 349.856 -339.87 0.676572 -0.53463 -0.506381 0.000611656
292.558 -192.119 -596.101 -0.602644 0.727307 0.328397 0.000962115
325.667 -128.222 809.472 -0.686665 -0.499125 -0.528551 0.00017268
15.983 349.635 -502.979 0.49267 -0.252017 0.832925 2.63141e-09
-338.156 90.2795 -128.655 0.714835 0.310477 0.62659 0.00064836
93.5495 337.266 679.968 0.315858 -0.923856 -0.216157 2.13634
-306.091 -102.233 1010 0.445932 -0.880246 -0.16221 3.20339e-08
-119.148 329.095 -552.825 -0.455078 -0.890419 0.0076008 1.08646e-08
97.9316 336.02 345.842 0.438715 -0.724756 0.53128 0.000200808
-231.342 -262.642 -807.412 0.888191 0.0759506 0.453153 0.000646078
-310.022 162.439 293.155 0.511012 -0.670342 -0.538059 0.000356921
-147.621 -317.345 893.973 0.89914 0.431296 -0.0743697 1.56327e-08
